# .PCD v0.7 - Point Cloud Data file format
VERSION 0.7
FIELDS x y z rgb
SIZE 4 4 4 4
TYPE F F F F
COUNT 1 1 1 1
WIDTH 978
HEIGHT 1
VIEWPOINT 0 0 0 1 0 0 0
POINTS 978
DATA ascii
0.013966304 0.1191977 0.0064144968 1.4386127e-38
0.016157333 0.11908744 0.00651738 1.4386128e-38
0.018348362 0.11897723 0.0066202614 1.4386129e-38
0.02053933 0.11886695 0.0067230868 1.4385413e-38
0.022730419 0.11875669 0.0068259719 1.4568727e-38
0.02492133 0.11864646 0.0069288514 1.4753473e-38
0.025460437 0.12184384 0.0045270794 1.4662353e-38
0.027659034 0.12173323 0.0046302662 1.4570521e-38
0.029857635 0.12162257 0.0047335173 1.4662359e-38
0.032056235 0.12151195 0.0048367674 1.4662358e-38
0.034254834 0.12140133 0.0049399552 1.4661639e-38
0.036453493 0.12129069 0.0050432063 1.4663067e-38
0.038652092 0.12118004 0.0051464555 1.4571224e-38
0.039251935 0.12437437 0.0027474882 1.4480105e-38
0.041458104 0.12426338 0.0028511011 1.4571939e-38
0.043664336 0.12415233 0.0029546577 1.466342e-38
0.044294521 0.12734516 0.00055709435 1.4754901e-38
0.046508379 0.12723379 0.00066101411 1.4754546e-38
0.048722118 0.12712237 0.00076493574 1.4846386e-38
0.05093604 0.12701094 0.00086891884 1.4937863e-38
0.053149778 0.12689957 0.00097283768 1.5120816e-38
0.055363633 0.12678815 0.0010768203 1.5213369e-38
0.056047048 0.12997825 -0.0013181812 1.5121892e-38
0.058268476 0.12986651 -0.0012138956 1.4938577e-38
0.060489848 0.12975469 -0.0011096071 1.4939293e-38
0.062711217 0.12964292 -0.0010053222 1.4939295e-38
0.064932644 0.12953113 -0.00090103364 1.4939296e-38
0.067154251 0.12941939 -0.00079674693 1.4939656e-38
0.069375619 0.12930757 -0.00069245812 1.5031495e-38
0.071596935 0.12919581 -0.00058811391 1.5122613e-38
0.073818423 0.12908401 -0.00048382487 1.5214448e-38
0.076039851 0.12897226 -0.00037953956 1.5214447e-38
0.078261212 0.12886046 -0.00027525052 1.5214447e-38
0.080482639 0.12874871 -0.00017096568 1.5214805e-38
0.082704067 0.12863688 -6.6617038e-05 1.5122971e-38
0.084925555 0.12852509 3.7671998e-05 1.4939659e-38
0.08714693 0.12841333 0.00014195731 1.4940018e-38
0.089368299 0.12830152 0.00024624541 1.4848538e-38
0.091589607 0.12818977 0.00035053049 1.5031846e-38
0.093811095 0.12807795 0.0004548193 1.5215876e-38
0.094639055 0.13126093 -0.0019333567 1.539919e-38
0.096867993 0.1311488 -0.0018287053 1.5583219e-38
0.099097058 0.13103659 -0.0017240508 1.5491743e-38
0.101326 0.13092448 -0.0016193995 1.5399551e-38
0.10355505 0.13081226 -0.0015147452 1.5399555e-38
0.10578408 0.13070016 -0.0014100934 1.530736e-38
0.10801305 0.13058795 -0.0013054388 1.5399553e-38
0.11024211 0.1304758 -0.0012007875 1.5399188e-38
0.11247107 0.13036361 -0.0010961327 1.5398824e-38
0.113375 0.13354255 -0.0034808184 1.5307353e-38
0.11561164 0.13342997 -0.0033757973 1.521624e-38
0.11784823 0.13331747 -0.0032707795 1.5124408e-38
0.11878251 0.13649504 -0.0056541311 1.5216606e-38
0.12232149 0.13309236 -0.003060742 1.5308443e-38
0.12455815 0.13297978 -0.0029557804 1.5308086e-38
0.12679477 0.13286728 -0.0028507628 1.5308086e-38
0.12775947 0.13604338 -0.0052325935 1.5307727e-38
0.13000362 0.13593039 -0.005127266 1.5215891e-38
0.13350454 0.13252959 -0.0025357048 1.5215533e-38
0.13574117 0.13241705 -0.0024307466 1.5123701e-38
0.13673621 0.13559164 -0.0048111728 1.5123347e-38
0.13898046 0.13547866 -0.0047057858 1.5124419e-38
0.14122479 0.13536575 -0.004600402 1.5125491e-38
0.1434689 0.13525288 -0.0044950191 1.5033655e-38
0.14571312 0.13513987 -0.004389693 1.5216968e-38
0.14795735 0.13502701 -0.0042843083 1.5309163e-38
0.15020156 0.13491403 -0.0041789818 1.5309882e-38
0.15244584 0.1348011 -0.0040735984 1.5217687e-38
0.15468998 0.13468815 -0.0039682118 1.5217685e-38
0.15693423 0.13457525 -0.0038628282 1.5217682e-38
0.1580129 0.13774541 -0.0062392787 1.5217678e-38
0.16142257 0.13434936 -0.0036521186 1.5125841e-38
0.16366681 0.13423647 -0.0035467348 1.5217677e-38
0.16591108 0.1341235 -0.0034414073 1.5309156e-38
0.16702014 0.13729213 -0.0058163935 1.5400637e-38
0.16927201 0.13717879 -0.0057107005 1.5492833e-38
0.17264374 0.13378474 -0.0031252541 1.5400999e-38
0.17377563 0.13695221 -0.0054992018 1.5218044e-38
0.17713213 0.13355887 -0.0029145437 1.5217684e-38
0.1782793 0.13672553 -0.0052877562 1.5125845e-38
0.18053111 0.13661228 -0.0051820097 1.521768e-38
0.18278283 0.13649893 -0.0050763171 1.5218038e-38
0.18503469 0.13638559 -0.0049706236 1.5218757e-38
0.18728651 0.13627236 -0.004864878 1.521876e-38
0.18953831 0.136159 -0.0047591254 1.5218404e-38
0.19179015 0.13604566 -0.0046534324 1.5126927e-38
0.19404197 0.1359324 -0.0045476863 1.5309882e-38
0.19629374 0.13581906 -0.0044419933 1.5401715e-38
0.19854556 0.13570571 -0.0043362407 1.5401713e-38
0.20079742 0.13559239 -0.0042305468 1.5402068e-38
0.20304929 0.13547915 -0.0041248011 1.5402783e-38
0.20630692 0.13209081 -0.0015447226 1.5401698e-38
0.20855115 0.13197784 -0.0014393954 1.5492808e-38
0.21079536 0.13186494 -0.001334012 1.5493178e-38
0.21303955 0.13175197 -0.0012286853 1.549319e-38
0.21528381 0.13163906 -0.0011233015 1.5401356e-38
0.21752802 0.13152611 -0.0010179149 1.5585746e-38
0.21881197 0.13468593 -0.0033847245 1.5677224e-38
0.22106378 0.13457258 -0.0032789719 1.5585031e-38
0.22331558 0.1344593 -0.0031732824 1.5401718e-38
0.22462995 0.13761765 -0.0055385716 1.5401716e-38
0.2278192 0.13423266 -0.00296184 1.5402074e-38
0.22914879 0.1373903 -0.0053264601 1.549319e-38
0.23140821 0.13727663 -0.0052203443 1.5492831e-38
0.23366764 0.13716297 -0.005114289 1.5492831e-38
0.23592708 0.13704918 -0.0050081667 1.5401712e-38
0.23818652 0.1369355 -0.0049021109 1.5494265e-38
0.24133009 0.13355279 -0.002327516 1.5493908e-38
0.2427053 0.13670814 -0.0046899403 1.5402432e-38
0.24496466 0.13659446 -0.0045838845 1.5310238e-38
0.24808557 0.13321288 -0.002010324 1.5310238e-38
0.25033733 0.13309954 -0.0019045717 1.5218041e-38
0.25174296 0.13625331 -0.0042656506 1.5125844e-38
0.25316373 0.13940647 -0.0066260644 1.5033646e-38
0.25543076 0.13929234 -0.0065196399 1.5033641e-38
0.25852123 0.1359123 -0.0039473646 1.4941443e-38
0.26078063 0.13579851 -0.0038413019 1.4665574e-38
0.26304001 0.13568483 -0.003735187 1.4390426e-38
0.26529947 0.13557117 -0.0036291312 1.4391862e-38
0.26755896 0.13545749 -0.0035230755 1.4384275e-38
0.26981831 0.13534382 -0.0034169599 1.0787573e-38
0.27207774 0.13523012 -0.0033109039 7.106971e-39
0.27510732 0.1318531 -0.00074161333 7.3799594e-39
0.27735916 0.13173981 -0.00063586421 7.5603878e-39
0.28036603 0.12836404 0.0019323817 6.8238975e-39
0.28261024 0.12825115 0.002037765 6.0834654e-39
0.29423794 0.096226878 0.026248008 4.700538e-39
0.29640809 0.096117705 0.026349869 4.3310394e-39
0.29857817 0.096008494 0.026451791 3.8714976e-39
0.30145767 0.092638962 0.029014142 3.5959855e-39
0.30291831 0.095790088 0.026655516 3.3197601e-39
0.30508846 0.095680922 0.026757438 3.2272058e-39
0.30725855 0.095571697 0.0268593 3.1350101e-39
0.30942866 0.095462523 0.02696122 3.13465e-39
0.31159878 0.09535329 0.027063083 3.0428145e-39
0.31244123 0.10175996 0.02224843 3.1342913e-39
0.31462654 0.10165001 0.022351081 3.13465e-39
0.31746045 0.098282754 0.024911238 3.1342927e-39
0.3196381 0.098173141 0.025013467 3.1346514e-39
0.32244924 0.094807275 0.027572514 3.1346528e-39
0.32461935 0.094698116 0.027674435 3.1346514e-39
0.32740769 0.091333151 0.030232517 3.1346514e-39
0.32895964 0.09447971 0.027878219 3.0428145e-39
0.33173269 0.091115542 0.030435568 3.0424558e-39
0.33389521 0.091006704 0.030537123 3.0424544e-39
0.33605769 0.090897858 0.030638622 2.9502588e-39
0.33822021 0.090789065 0.030740118 2.8584247e-39
0.3403827 0.090680234 0.030841673 2.9499014e-39
0.34198013 0.093824446 0.028489517 2.9502616e-39
0.34303552 0.1002204 0.023684865 2.9502616e-39
0.34522083 0.10011046 0.023787459 2.950263e-39
0.34794831 0.096748605 0.026342671 2.9499056e-39
0.34959143 0.099890515 0.023992708 2.9502658e-39
0.35177675 0.099780515 0.024095302 2.8580729e-39
0.35396203 0.099670596 0.024197893 2.766236e-39
0.35665917 0.096310198 0.026751585 2.8577114e-39
0.35833266 0.09945067 0.024403082 2.8580687e-39
0.36051801 0.099340715 0.024505677 2.8584275e-39
0.36270326 0.099230699 0.024608271 2.8584261e-39
0.36488861 0.099120788 0.024710864 2.8580659e-39
0.36754763 0.095762312 0.027262846 2.766229e-39
0.36925918 0.098900832 0.024916111 2.766229e-39
0.37144449 0.098790854 0.025018707 2.7658703e-39
0.38205555 0.1006752 0.023696568 2.7658689e-39
0.38424665 0.10056493 0.023799453 2.7658689e-39
0.38643765 0.10045473 0.023902334 2.8580645e-39
0.38862866 0.10034445 0.024005216 2.9499e-39
0.39081964 0.1002342 0.024108101 2.9502602e-39
0.39301068 0.1001239 0.024210924 2.9502602e-39
0.39520165 0.1000137 0.024313809 2.9502616e-39
0.39739263 0.099903427 0.024416691 2.9499056e-39
0.39958367 0.099793151 0.024519516 3.0410265e-39
0.40177464 0.099682949 0.024622397 3.0410279e-39
0.40396568 0.099572673 0.024725283 3.0406705e-39
0.40615666 0.099462405 0.024828164 3.0424628e-39
0.40801829 0.10259331 0.022488439 3.318328e-39
0.41021693 0.10248262 0.02259169 3.5030766e-39
0.43392533 0.10773867 0.01885058 3.2279204e-39
0.43613914 0.10762727 0.018954502 3.2275603e-39
0.43857583 0.10428011 0.021496089 3.4112313e-39
0.44078201 0.10416909 0.021599645 3.503071e-39
0.44298828 0.1040581 0.021703256 3.5959869e-39
0.44539461 0.10071243 0.024243323 3.5956296e-39
0.44740072 0.10383602 0.021910431 3.5959897e-39
0.44960693 0.10372504 0.022013985 3.5956282e-39
0.45163581 0.10684745 0.019682074 3.595268e-39
0.45384958 0.10673604 0.019785991 3.5034339e-39
0.45606339 0.10662466 0.019889975 3.5034353e-39
0.4582772 0.10651324 0.019993894 3.4119558e-39
0.46049103 0.10640186 0.020097813 3.4126718e-39
0.46270487 0.10629045 0.020201799 3.4123131e-39
0.48002261 0.12154157 0.0088793132 3.3197601e-39
0.48227447 0.12142829 0.0089850631 3.3204748e-39
0.48465294 0.11485956 0.013950951 3.2264785e-39
0.48683384 0.11797448 0.011626231 2.7658577e-39
0.48907799 0.11786149 0.011731556 2.3048893e-39
0.49132231 0.11774859 0.01183694 1.8421259e-39
0.49356654 0.11763568 0.011942323 1.3840205e-39
0.49583596 0.11429684 0.014476044 1.1963992e-39
0.49807259 0.11418426 0.014581067 9.2413392e-40
0.5002991 0.11729686 0.012258422 1.1045875e-39
0.50254333 0.11718395 0.012363805 1.2932864e-39
0.5047875 0.11707105 0.01246913 1.382615e-39
0.50704437 0.12018188 0.01014802 1.3883561e-39
0.5092963 0.12006852 0.010253772 1.6606354e-39
0.51154804 0.11995523 0.010359462 1.849693e-39
0.51379991 0.11984195 0.010465212 1.9372279e-39
0.51605165 0.1197286 0.010570904 2.0369653e-39
0.51830351 0.11961529 0.010676654 2.9510239e-39
0.52055532 0.11950195 0.010782348 3.7886682e-39
0.52274138 0.11616756 0.013312088 4.9886337e-39
0.52505893 0.11927537 0.010993846 6.1846616e-39
0.52731085 0.11916204 0.01109954 7.4822121e-39
0.52965128 0.1222688 0.0087823868 8.6706954e-39
0.53191066 0.12215507 0.0088885073 9.9650033e-39
0.53427404 0.12526079 0.0065722675 1.1241732e-38
0.53665251 0.1283655 0.0042568324 1.143473e-38
0.53892714 0.12825106 0.0043636202 1.1521543e-38
0.54120177 0.12813663 0.0044704671 1.1991841e-38
0.54347628 0.12802216 0.0045772544 1.2446009e-38
0.54575104 0.12790772 0.0046840436 1.3748937e-38
0.54802561 0.12779316 0.0047908374 1.4932772e-38
0.55030018 0.12767872 0.0048976247 1.4944269e-38
0.55257493 0.12756428 0.005004413 1.4841685e-38
0.55484951 0.12744983 0.0051112003 1.5308409e-38
0.55712426 0.12733538 0.0052179894 1.5671448e-38
0.55939877 0.12722094 0.0053247758 1.5769025e-38
0.56191719 0.13112487 0.0024091774 1.5856187e-38
0.56420135 0.13100994 0.0025164094 1.4575504e-38
0.5664854 0.13089497 0.0026236405 1.3287684e-38
0.56876957 0.13078003 0.0027308711 1.4486238e-38
0.57105368 0.13066509 0.0028381613 1.558502e-38
0.57333785 0.13055016 0.0029453938 1.5401335e-38
0.57562196 0.13043521 0.0030526244 1.5216948e-38
0.57790607 0.13032025 0.0031598555 1.5584293e-38
0.58019024 0.13020535 0.0032670866 1.5953797e-38
0.58247435 0.13009039 0.0033743777 1.549714e-38
0.5847584 0.12997544 0.0034816083 1.5035808e-38
0.58704263 0.12986049 0.0035888399 1.5401711e-38
0.58932668 0.12974557 0.003696071 1.5678302e-38
0.59190476 0.13284042 0.0013899193 1.5218058e-38
0.5938949 0.12951569 0.0039105332 1.4667401e-38
0.59617913 0.12940075 0.0040177647 1.4850712e-38
0.59846318 0.12928581 0.0041250554 1.4943619e-38
0.60074723 0.12917089 0.004232286 1.5035808e-38
0.6030314 0.12905595 0.0043395176 1.5035436e-38
0.60531557 0.128941 0.0044467491 1.4852113e-38
0.60759968 0.12882607 0.0045539807 1.4668092e-38
0.60988373 0.1287111 0.0046612709 1.4758861e-38
0.61216789 0.12859617 0.0047685015 1.4761379e-38
0.61445206 0.12848124 0.0048757331 1.4761387e-38
0.61673617 0.12836632 0.0049829646 1.4760671e-38
0.61902022 0.12825136 0.0050901952 1.5036539e-38
0.62130433 0.12813641 0.0051974268 1.5312035e-38
0.62358844 0.12802148 0.0053047161 1.5587173e-38
0.62628043 0.13111059 0.0030039321 1.5771579e-38
0.62857217 0.13099535 0.0031115259 1.5772672e-38
0.63128704 0.13408326 0.00081190234 1.5680828e-38
0.63358641 0.13396756 0.00091986544 1.5864132e-38
0.63588572 0.13385186 0.0010277689 1.6048159e-38
0.63818508 0.13373615 0.0011357325 1.6139633e-38
0.64048445 0.13362044 0.0012436952 1.6232187e-38
0.64278376 0.13350472 0.0013516583 1.6324024e-38
0.64508301 0.13338901 0.0014596214 1.6324743e-38
0.64738238 0.1332733 0.0015675849 1.6508416e-38
0.64919776 0.12995738 0.0040799039 1.6693161e-38
0.6514895 0.1298421 0.0041874978 1.6877548e-38
0.65378112 0.12972683 0.0042950911 1.7062297e-38
0.65657961 0.13281046 0.0019993777 1.7062657e-38
0.65887898 0.13269477 0.0021073404 1.7063019e-38
0.66117823 0.13257904 0.0022153035 1.724741e-38
0.6634776 0.13246332 0.0023232666 1.7338531e-38
0.66577691 0.13234764 0.0024312302 1.7337457e-38
0.66807634 0.13223192 0.0025391937 1.7245623e-38
0.67037553 0.13211621 0.0026471564 1.7337101e-38
0.67267489 0.13200063 0.0027550533 1.7338178e-38
0.6749742 0.1318849 0.0028630164 1.7338896e-38
0.6778487 0.13496469 0.00057090307 1.7246346e-38
0.68015558 0.13484865 0.00067922892 1.7338185e-38
0.68246257 0.13473263 0.00078749517 1.7338185e-38
0.68476945 0.13461646 0.00089582754 1.7337826e-38
0.68707633 0.13450044 0.0010041534 1.7247067e-38
0.68938327 0.13438429 0.0011124853 1.7247425e-38
0.69169027 0.13426824 0.001220752 1.715523e-38
0.69399714 0.13415207 0.0013290839 1.7155228e-38
0.6956681 0.13084352 0.0038346252 1.7155224e-38
0.69861108 0.13392001 0.0015456765 1.715522e-38
0.7009179 0.13380384 0.0016540084 1.715522e-38
0.70322484 0.13368782 0.0017623338 1.7338534e-38
0.70553178 0.13357165 0.0018706671 1.7430728e-38
0.70783877 0.13345565 0.0019789333 1.7431087e-38
0.71014565 0.13333948 0.0020872657 1.7430731e-38
0.71245259 0.13322344 0.0021955916 1.7522569e-38
0.71475947 0.13310741 0.0023038578 1.752257e-38
0.71706647 0.13299127 0.0024121902 1.7614409e-38
0.7193734 0.13287522 0.002520516 1.7614767e-38
0.72168028 0.13275908 0.0026288484 1.7615126e-38
0.72398722 0.13264304 0.0027371147 1.7522932e-38
0.72629416 0.13252689 0.002845447 1.761441e-38
0.7286011 0.13241087 0.0029537729 1.7614766e-38
0.73090792 0.13229482 0.0030620391 1.7798794e-38
0.73321491 0.13217868 0.0031703715 1.7892411e-38
0.73647827 0.13604508 0.00028973282 1.7617968e-38
0.73879468 0.13592857 0.00039850269 1.7243775e-38
0.74111116 0.13581192 0.00050727883 1.5669981e-38
0.74244255 0.13171427 0.0036036284 1.4108786e-38
0.74474955 0.13159823 0.0037119542 1.4387531e-38
0.74705637 0.13148209 0.003820227 1.4571226e-38
0.7493633 0.13136604 0.0039285528 1.4759227e-38
0.75085181 0.12806661 0.0064255544 1.484998e-38
0.75315124 0.12795091 0.006533518 1.4758139e-38
0.75461692 0.12465267 0.0090294182 1.4574467e-38
0.75606757 0.12135509 0.011524655 1.4665943e-38
0.75835162 0.12124002 0.011631951 1.4665579e-38
0.76063573 0.12112522 0.011739176 1.4757409e-38
0.76291984 0.12101026 0.011846406 1.4852489e-38
0.76520407 0.12089533 0.011953639 1.4851069e-38
0.76748806 0.12078038 0.012060869 1.4758872e-38
0.76977223 0.12066544 0.01216816 1.484676e-38
0.77205634 0.12055049 0.01227539 1.4850691e-38
0.77434045 0.12043557 0.012382621 1.5035424e-38
0.7766245 0.12032063 0.012489853 1.5127631e-38
0.77890873 0.12020569 0.012597086 1.5310238e-38
0.78119284 0.12009072 0.012704315 1.5494629e-38
0.78347695 0.1199758 0.012811547 1.5678305e-38
0.78576106 0.11986087 0.012918837 1.5861238e-38
0.78804517 0.11974593 0.01302607 1.5769385e-38
0.79032928 0.11963097 0.0131333 1.5677192e-38
0.79261345 0.11951606 0.013240531 1.5769746e-38
0.79489756 0.1194011 0.013347762 1.5860154e-38
0.79718161 0.11928616 0.013455054 1.5310223e-38
0.80045134 0.12234629 0.011181355 1.4757765e-38
0.80274308 0.12223091 0.011288956 1.4663409e-38
0.80503482 0.12211563 0.01139655 1.4482233e-38
0.80732656 0.12200026 0.011504151 1.4389665e-38
0.80961829 0.12188499 0.011611743 1.4200596e-38
0.81293362 0.1249427 0.0093403067 1.3825347e-38
0.81523299 0.12482699 0.0094482712 1.3455854e-38
0.8175323 0.12471128 0.0095562339 1.1800665e-38
0.81983167 0.12459556 0.0096641965 1.0056517e-38
0.82213098 0.12447985 0.009772161 9.8710617e-39
0.82443029 0.12436415 0.0098801237 9.6884655e-39
0.8267296 0.12424843 0.0099880863 1.0237683e-38
0.83010578 0.12730306 0.0077194604 1.0698639e-38
0.83241272 0.12718689 0.0078277923 9.9589189e-39
0.83471954 0.12707087 0.0079361182 9.2285397e-39
0.83702648 0.12695484 0.008044444 9.1320407e-39
0.83933347 0.1268387 0.0081527177 9.0448841e-39
0.84164029 0.12672265 0.0082610436 9.5926839e-39
0.84394729 0.12660651 0.008369375 1.0056156e-38
0.84625423 0.12649046 0.0084776413 9.6816299e-39
0.84856105 0.12637429 0.0085859746 9.3211081e-39
0.85086805 0.12625827 0.0086942986 1.0329868e-38
0.85461605 0.13010025 0.0058364081 1.1346168e-38
0.8569324 0.12998372 0.0059451773 1.2635822e-38
0.85924888 0.1298672 0.0060538868 1.3835802e-38
0.86156529 0.12975068 0.006162656 1.3930168e-38
0.86506498 0.13279907 0.0038998998 1.392909e-38
0.86738902 0.1326821 0.0040089786 1.3559237e-38
0.86971301 0.13256514 0.0041181175 1.3100413e-38
0.87203711 0.13244815 0.0042272559 1.3004626e-38
0.87314743 0.12916777 0.0067064553 1.2825266e-38
0.87546372 0.12905127 0.0068152254 1.3374493e-38
0.87900907 0.13209733 0.004554546 1.3837258e-38
0.88133311 0.13198037 0.0046636839 1.4387194e-38
0.8836571 0.13186352 0.0047728163 1.4847824e-38
0.88598102 0.13174655 0.0048818947 1.5029718e-38
0.88830513 0.13162957 0.0049910336 1.5127297e-38
0.89062923 0.13151261 0.0051001715 1.4486607e-38
0.89295322 0.13139562 0.0052092518 1.3751917e-38
0.8965593 0.13443887 0.0029514264 1.4296467e-38
0.89889091 0.13432147 0.003060875 1.4758512e-38
0.90122253 0.13420418 0.0031703766 1.5216253e-38
0.90355414 0.13408686 0.0032798178 1.5588237e-38
0.90588588 0.13396956 0.0033893189 1.5956993e-38
0.90821737 0.13385226 0.0034987605 1.6325061e-38
0.91220868 0.13768193 0.00065228296 1.6695998e-38
0.91454977 0.13756414 0.00076222746 1.6967934e-38
0.91689086 0.13744634 0.00087211281 1.7708017e-38
0.91923201 0.13732854 0.0009820573 1.8346918e-38
0.92157322 0.13721074 0.0010919427 1.8534535e-38
0.92391431 0.13709296 0.0012018871 1.8623505e-38
0.92625546 0.13697517 0.001311772 1.8811124e-38
0.92859656 0.13685738 0.001421717 1.8898651e-38
0.93093777 0.13673955 0.0015316019 1.8260103e-38
0.93327886 0.13662177 0.0016415464 1.7614393e-38
0.93561995 0.13650396 0.0017514322 1.7983896e-38
0.9379611 0.13638607 0.0018613827 1.8349443e-38
0.94172108 0.13942133 -0.00038921367 1.8723239e-38
0.9440698 0.1393031 -0.00027889898 1.8993722e-38
0.94641858 0.13918498 -0.00016865181 1.908699e-38
0.94732565 0.13591486 0.002301042 1.9177385e-38
0.95111603 0.1389485 5.191681e-05 1.9179173e-38
0.95346469 0.13883038 0.00016216421 1.9176676e-38
0.95581341 0.13871214 0.00027247844 1.9088441e-38
0.95816219 0.13859402 0.00038272608 1.8993376e-38
0.96051085 0.13847578 0.00049303984 1.9179199e-38
0.96285963 0.13835765 0.00060328748 1.9268882e-38
0.96520829 0.13823941 0.00071354164 1.9177764e-38
0.96755725 0.13812117 0.0008238568 1.908593e-38
0.96990579 0.13800305 0.00093410397 1.8812576e-38
0.97225463 0.13788481 0.0010444182 1.8536719e-38
0.97460335 0.1377667 0.0011546658 1.9089536e-38
0.97695202 0.13764846 0.0012649195 1.9546555e-38
0.9793008 0.13753022 0.0013752342 1.963982e-38
0.98164946 0.13741207 0.0014854809 1.9639815e-38
0.98399824 0.13729382 0.0015957952 1.9456495e-38
0.98791015 0.14032155 -0.0006476664 1.9272474e-38
0.99026662 0.14020298 -0.00053704926 1.9180647e-38
0.99262297 0.14008442 -0.00042637275 1.9088447e-38
0.9949792 0.13996585 -0.00031575584 1.917992e-38
0.99733555 0.13984729 -0.00020513916 1.9179921e-38
0.99969196 0.13972872 -9.4520859e-05 1.9179922e-38
1.0040592 0.14353949 -0.0029232781 1.9179924e-38
1.0044045 0.13949157 0.00012677209 1.9179925e-38
1.0067607 0.13937303 0.000237389 1.9088091e-38
1.0111569 0.14318243 -0.0025900435 1.8995898e-38
1.0135227 0.14306337 -0.0024789833 1.8904423e-38
1.0158885 0.14294431 -0.0023679226 1.89959e-38
1.0182543 0.14282526 -0.0022568624 1.8996617e-38
1.0206201 0.1427062 -0.0021457421 1.9088451e-38
1.0229861 0.14258713 -0.0020346814 1.9180287e-38
1.0253518 0.14246808 -0.0019236212 1.9088091e-38
1.0277177 0.14234899 -0.0018125013 1.8904422e-38
1.0300835 0.14222993 -0.0017014411 1.8995901e-38
1.0324494 0.14211088 -0.0015903809 1.9088453e-38
1.034815 0.14199193 -0.0014793274 1.9180647e-38
1.037181 0.14187287 -0.0013682062 1.9180645e-38
1.039547 0.14175381 -0.001257146 1.9363956e-38
1.0436432 0.14477225 -0.003491987 1.9547985e-38
1.0460167 0.14465284 -0.0033805654 1.9456506e-38
1.0483902 0.14453346 -0.0032690815 1.9271392e-38
1.0507635 0.14441395 -0.0031576529 1.926995e-38
1.0531368 0.14429456 -0.0030462299 1.9271752e-38
1.0555104 0.1441752 -0.002934806 1.9364314e-38
1.0578839 0.14405565 -0.0028233766 1.9363956e-38
1.0602573 0.14393629 -0.0027119531 1.9271764e-38
1.0626307 0.14381677 -0.0026005236 1.9088094e-38
1.0650041 0.14369741 -0.0024890415 1.918029e-38
1.0673777 0.14357802 -0.0023776167 1.9180295e-38
1.069751 0.14345852 -0.0022661882 1.9272135e-38
1.0721242 0.14333913 -0.0021547652 1.9363607e-38
1.0744978 0.14321971 -0.0020433418 1.9271052e-38
1.0768713 0.14310022 -0.0019319123 1.9179213e-38
1.0792446 0.14298081 -0.0018204302 1.9179571e-38
1.0816181 0.14286134 -0.0017089997 1.9179571e-38
1.0839915 0.14274195 -0.0015975763 1.9271047e-38
1.0863651 0.14262256 -0.0014861529 1.9271045e-38
1.0887383 0.14250307 -0.0013747239 1.9270685e-38
1.0911118 0.14238365 -0.0012633009 1.9179212e-38
1.0934852 0.14226417 -0.0011518705 1.9272126e-38
1.0958589 0.14214478 -0.001040447 1.9272485e-38
1.100614 0.1459361 -0.0038510244 1.9547633e-38
1.1029967 0.14581621 -0.0037391586 1.9730948e-38
1.1053796 0.14569633 -0.0036272919 2.000574e-38
1.1077627 0.14557634 -0.0035154186 2.0282299e-38
1.1101457 0.14545645 -0.0034034927 2.0099323e-38
1.1125284 0.14533658 -0.0032916265 1.981843e-38
1.112473 0.14130872 -0.0002603461 1.9274586e-38
1.1148463 0.14118932 -0.00014892407 1.8710639e-38
1.1152536 0.13794421 0.0022973646 1.5953402e-38
1.1176193 0.13782515 0.0024084249 1.3190442e-38
1.119985 0.1377061 0.0025194851 1.1802145e-38
1.1223511 0.13758703 0.0026306058 1.0426032e-38
1.1247169 0.13746797 0.0027416656 1.1063485e-38
1.1245775 0.1334444 0.0057689757 1.1617347e-38
1.1269337 0.13332582 0.0058795926 1.1803508e-38
1.1292902 0.13320728 0.0059902105 1.1988995e-38
1.1316466 0.13308872 0.006100887 1.1989737e-38
1.136546 0.13687265 0.0032970281 1.1897164e-38
1.1389117 0.13675372 0.003408141 1.1437608e-38
1.1412776 0.13663465 0.0035192012 1.0975567e-38
1.1508443 0.14743912 -0.0045265225 1.0602849e-38
1.1553015 0.15043931 -0.0067443689 1.0154841e-38
1.1556293 0.14719836 -0.0043019014 1.5132303e-38
1.1580216 0.14707798 -0.0041895323 2.0006425e-38
1.1625016 0.15007707 -0.0064062849 1.973238e-38
1.1628065 0.1468371 -0.0039649056 1.9363963e-38
1.165199 0.14671674 -0.0038525951 1.9455084e-38
1.1675915 0.14659636 -0.0037402259 1.9455447e-38
1.1699839 0.14647599 -0.0036279159 1.945617e-38
1.1723762 0.1463556 -0.0035156072 1.9364681e-38
1.1769021 0.14935239 -0.0057302206 1.9456864e-38
1.179302 0.14923167 -0.0056175492 1.9548342e-38
1.181702 0.14911084 -0.0055048703 1.9548702e-38
1.1841022 0.14899004 -0.0053921309 1.9547989e-38
1.186502 0.14886934 -0.0052794581 1.9547634e-38
1.188902 0.1487485 -0.0051667802 1.9547636e-38
1.1913022 0.1486278 -0.0050541065 1.9547639e-38
1.1937023 0.14850698 -0.0049414271 1.9455802e-38
1.1961023 0.14838628 -0.0048287539 1.9547637e-38
1.1963006 0.14515169 -0.0023923214 1.9547996e-38
1.2009022 0.14814463 -0.004603337 1.9547637e-38
1.203302 0.14802392 -0.0044906652 1.9547994e-38
1.2057024 0.1479031 -0.004377984 1.9547994e-38
1.2081026 0.1477824 -0.0042653116 1.9547636e-38
1.2105026 0.14766157 -0.0041526323 1.9547637e-38
0.0021605883 0.11626649 0.0057900767 1.4293561e-38
0.0043458352 0.11615653 0.0058926684 1.4293209e-38
0.0065310826 0.11604653 0.0059952629 1.4202098e-38
0.0074262773 0.11841692 0.0042120605 1.4202458e-38
0.0096173072 0.11830667 0.0043149455 1.4294653e-38
0.011808276 0.11819647 0.004417826 1.438649e-38
0.013999186 0.11808617 0.0045206505 1.438649e-38
0.016190274 0.11797591 0.0046235346 1.438649e-38
0.018381303 0.11786568 0.004726416 1.4477606e-38
0.020572212 0.11775541 0.0048292405 1.4568365e-38
0.022763301 0.11764516 0.0049321256 1.4753111e-38
0.024954271 0.11753487 0.0050350097 1.5029334e-38
0.0271453 0.11742467 0.0051378901 1.4937497e-38
0.029336268 0.1173144 0.0052407742 1.484531e-38
0.031527299 0.11720412 0.0053435988 1.475348e-38
0.033718389 0.1170939 0.0054464801 1.475312e-38
0.035909299 0.11698364 0.0055493643 1.4661999e-38
0.038100384 0.11687337 0.0056521897 1.4570874e-38
0.04029135 0.11676316 0.0057550701 1.4571583e-38
0.04088375 0.11995399 0.0033492083 1.4480822e-38
0.043082468 0.11984335 0.0034524589 1.4571939e-38
0.045281008 0.11973276 0.0035557053 1.4663061e-38
0.047479611 0.11962209 0.0036588963 1.4754901e-38
0.048109978 0.12281108 0.0012548617 1.4846023e-38
0.050316148 0.12270003 0.0013584173 1.4846026e-38
0.052522436 0.12258903 0.0014620307 1.4937504e-38
0.054728661 0.12247801 0.0015655882 1.50297e-38
0.056934889 0.12236696 0.0016691443 1.5121535e-38
0.059140939 0.12225598 0.0017727572 1.5029698e-38
0.059824657 0.12544225 -0.00062889489 1.4938221e-38
0.062038459 0.12533085 -0.0005249125 1.493858e-38
0.064252198 0.1252194 -0.00042098993 1.493858e-38
0.066465996 0.12510802 -0.00031707087 1.4939655e-38
0.068679795 0.12499661 -0.00021314854 1.4940016e-38
0.06940905 0.12818058 -0.0026125445 1.5031137e-38
0.073107392 0.1247738 -5.2466057e-06 1.5030062e-38
0.075321369 0.12466246 9.8733231e-05 1.5030421e-38
0.076073281 0.12784526 -0.0022996254 1.5122613e-38
0.078294702 0.12773347 -0.0021953962 1.5122969e-38
0.08051607 0.12762173 -0.0020910515 1.5123329e-38
0.082737498 0.12750991 -0.001986763 1.5031495e-38
0.084958866 0.12739816 -0.0018824775 1.4939659e-38
0.087180294 0.12728633 -0.0017781893 1.4848181e-38
0.089401729 0.1271746 -0.0016739031 1.4848177e-38
0.091623157 0.12706277 -0.0015695554 1.5032201e-38
0.093844526 0.12695102 -0.0014652703 1.5215513e-38
0.096065953 0.12683919 -0.0013609815 1.5307349e-38
0.098287322 0.1267274 -0.0012566925 1.5491024e-38
0.10050887 0.12661567 -0.0011524064 1.539955e-38
0.10273024 0.12650385 -0.0010480587 1.530736e-38
0.10495164 0.12639211 -0.00094383257 1.5307721e-38
0.10717304 0.12628028 -0.00083948486 1.5215886e-38
0.10939446 0.12616852 -0.00073519931 1.530772e-38
0.11161586 0.12605672 -0.00063091051 1.5307356e-38
0.11250465 0.12923279 -0.0030228696 1.5308067e-38
0.11473365 0.12912066 -0.0029182187 1.5216955e-38
0.11696268 0.12900844 -0.0028135637 1.5216602e-38
0.11919165 0.12889627 -0.0027089091 1.5216245e-38
0.12011851 0.13207023 -0.0050990875 1.5216245e-38
0.12235507 0.13195765 -0.0049940078 1.5308083e-38
0.1245917 0.13184515 -0.00488905 1.521589e-38
0.12682833 0.13173255 -0.0047840294 1.521589e-38
0.12906496 0.13162002 -0.0046790121 1.5215889e-38
0.13130155 0.13150746 -0.0045739915 1.5216247e-38
0.13353816 0.13139492 -0.0044689737 1.5123694e-38
0.13702379 0.12799895 -0.0018716849 1.5123341e-38
0.13801138 0.13116984 -0.0042589358 1.5215898e-38
0.14024796 0.13105725 -0.0041539753 1.5217331e-38
0.14248461 0.13094474 -0.0040489575 1.5217326e-38
0.14593987 0.12755029 -0.0014530728 1.5309163e-38
0.14695787 0.13071963 -0.0038389193 1.5309165e-38
0.15039794 0.12732595 -0.0012437662 1.5309528e-38
0.1514311 0.13049453 -0.0036288814 1.5309532e-38
0.15366775 0.13038203 -0.0035238639 1.5217695e-38
0.15708491 0.12698948 -0.00092975004 1.5217692e-38
0.15814094 0.1301569 -0.003313886 1.5309521e-38
0.15921225 0.1333238 -0.0056973021 1.5309512e-38
0.16261417 0.12993182 -0.0031038476 1.5309508e-38
0.16485077 0.12981923 -0.002998827 1.5308785e-38
0.16708745 0.12970671 -0.0028938092 1.539991e-38
0.16818908 0.13287207 -0.0052758213 1.5400633e-38
0.17043324 0.13275909 -0.0051704948 1.5492473e-38
0.17267747 0.13264619 -0.0050651114 1.5309163e-38
0.17492171 0.13253328 -0.0049597276 1.5218045e-38
0.17716599 0.13242035 -0.004854341 1.512585e-38
0.17941013 0.13230743 -0.0047489582 1.5125484e-38
0.18165438 0.13219446 -0.0046436312 1.521803e-38
0.18389852 0.13208157 -0.0045382483 1.5310583e-38
0.18614279 0.13196859 -0.0044329204 1.5310223e-38
0.18838698 0.1318557 -0.004327537 1.530987e-38
0.19063118 0.13174279 -0.0042221537 1.5310234e-38
0.19287542 0.13162981 -0.0041167671 1.5218761e-38
0.19407582 0.13478999 -0.0064940723 1.5310241e-38
0.19632766 0.13467664 -0.0063883788 1.5402434e-38
0.19857949 0.13456334 -0.0062826886 1.5402072e-38
0.20185229 0.13117807 -0.0036953464 1.5402071e-38
0.20409656 0.13106517 -0.0035899628 1.5402427e-38
0.20634069 0.13095227 -0.0034845797 1.5493541e-38
0.20858501 0.13083929 -0.0033791931 1.5493536e-38
0.21082915 0.1307264 -0.0032738096 1.5493905e-38
0.21307337 0.13061342 -0.0031684823 1.5493555e-38
0.21531761 0.13050054 -0.003063099 1.5493197e-38
0.2175618 0.13038757 -0.002957772 1.5585034e-38
0.21980596 0.13027467 -0.0028523887 1.5584677e-38
0.22205025 0.13016175 -0.0027470053 1.5493559e-38
0.22334947 0.13331684 -0.0051196683 1.5401363e-38
0.22560129 0.13320358 -0.0050139786 1.540172e-38
0.22785306 0.13309029 -0.0049082292 1.5402439e-38
0.23010495 0.13297693 -0.0048025353 1.5401363e-38
0.23235671 0.13286364 -0.0046967855 1.5492837e-38
0.23460855 0.13275033 -0.0045910375 1.5493192e-38
0.23686035 0.13263699 -0.0044853436 1.5585743e-38
0.2391122 0.13252373 -0.0043795938 1.5494264e-38
0.24224815 0.12914537 -0.0017987208 1.5493908e-38
0.24361587 0.13229707 -0.0041681523 1.5402075e-38
0.24673659 0.12891948 -0.0015879509 1.5401715e-38
0.24898081 0.12880652 -0.0014826236 1.5309877e-38
0.25207871 0.1254299 0.0010966118 1.521768e-38
0.25431529 0.12531734 0.0012015696 1.5125483e-38
0.25487489 0.1317305 -0.0036395774 1.5124764e-38
0.25795764 0.12835485 -0.0010611464 1.5033285e-38
0.2602019 0.1282419 -0.00095575978 1.4941088e-38
0.26163033 0.13139059 -0.0033223857 1.4665936e-38
0.26388216 0.13127725 -0.0032166331 1.4482268e-38
0.26613399 0.13116395 -0.0031108842 1.4665582e-38
0.26838583 0.13105066 -0.003005194 1.4753756e-38
0.27063763 0.13093731 -0.0028995005 1.0972642e-38
0.27288949 0.13082403 -0.0027937517 7.1044389e-39
0.2751413 0.13071066 -0.0026879986 7.3788776e-39
0.2773931 0.13059738 -0.0025823088 7.5603836e-39
0.28115472 0.12396675 0.0024617384 6.8220997e-39
0.28339136 0.12385423 0.0025667553 6.081313e-39
0.2942706 0.095125966 0.024372196 4.6987485e-39
0.29644069 0.095016748 0.024474118 4.2384878e-39
0.29932767 0.091650665 0.027043365 3.7782272e-39
0.30149019 0.091541909 0.027144918 3.5030724e-39
0.30365276 0.091433071 0.027246475 3.2272072e-39
0.30512109 0.09457995 0.024881683 3.1350115e-39
0.30729124 0.094470792 0.024983548 3.1342941e-39
0.3094613 0.094361544 0.02508541 3.0424572e-39
0.31230274 0.090997808 0.027652582 3.0424558e-39
0.31380153 0.094143145 0.025289191 3.0424544e-39
0.31597164 0.094033927 0.025391115 3.0424558e-39
0.31814179 0.093924768 0.025492979 3.0424558e-39
0.32095271 0.0905625 0.028058687 3.0420971e-39
0.32311523 0.090453714 0.028160242 3.0424558e-39
0.32527775 0.090344861 0.028261798 3.0420971e-39
0.32744026 0.09023609 0.028363293 3.0424558e-39
0.32960272 0.090127237 0.028464848 3.0424558e-39
0.33176529 0.090018392 0.028566347 3.0424544e-39
0.33392778 0.089909613 0.028667903 2.9502588e-39
0.33609027 0.089800768 0.028769458 2.8580617e-39
0.33767268 0.092941962 0.026409976 2.8577044e-39
0.33984274 0.092832729 0.026511839 2.8580645e-39
0.34201291 0.092723556 0.026613759 2.9495413e-39
0.34362572 0.095862955 0.024255816 2.9499e-39
0.34580341 0.095753342 0.024358042 2.9502602e-39
0.3479811 0.095643796 0.024460269 2.9499014e-39
0.35015884 0.095534176 0.024562558 2.9499e-39
0.35233653 0.095424637 0.024664786 2.8580631e-39
0.35451421 0.095315009 0.024767017 2.7658703e-39
0.35618016 0.098451957 0.022411617 2.8580645e-39
0.35836554 0.098342024 0.022514207 2.9499e-39
0.36104733 0.09498629 0.025073759 2.9502588e-39
0.36273614 0.09812209 0.0227194 2.9499e-39
0.36492142 0.098012082 0.022821993 2.8580631e-39
0.36758044 0.094657511 0.025380502 2.8577058e-39
0.36975816 0.094547883 0.025482731 2.8580645e-39
0.37193581 0.094438344 0.025584958 2.9495413e-39
0.37411359 0.094328746 0.025687249 2.8580631e-39
0.3820886 0.099563666 0.02180272 2.9495399e-39
0.38427964 0.099453405 0.021905607 2.9491826e-39
0.38647062 0.099343129 0.022008492 3.0417355e-39
0.38866162 0.099232905 0.022111373 3.2254065e-39
0.3908526 0.099122666 0.022214258 3.226124e-39
0.39304361 0.099012367 0.02231708 3.2257666e-39
0.39523458 0.098902158 0.022419961 3.2264855e-39
0.39742568 0.098791905 0.022522846 3.3179637e-39
0.39961666 0.098681621 0.02262567 3.3183224e-39
0.40180764 0.098571405 0.022728553 3.3176035e-39
0.40399864 0.098461151 0.022831436 3.2264841e-39
0.40618968 0.098350868 0.022934321 3.2275617e-39
0.40838069 0.098240599 0.023037205 3.3201161e-39
0.41025004 0.10136721 0.020691255 3.50415e-39
0.43149921 0.10995998 0.014387872 3.5041416e-39
0.43372062 0.10984818 0.014492162 3.4119516e-39
0.43617243 0.10650416 0.017040946 3.4115928e-39
0.43838623 0.10639275 0.01714493 3.1353689e-39
0.44060007 0.10628133 0.017248852 2.952421e-39
0.44281381 0.10616995 0.017352769 2.6762026e-39
0.44522771 0.10282779 0.019899849 2.4943281e-39
0.44743392 0.10271677 0.020003404 2.400343e-39
0.44945529 0.10583573 0.017664595 2.4028499e-39
0.45166907 0.1057243 0.017768515 2.3992584e-39
0.45371327 0.10884213 0.015430864 2.4939651e-39
0.45593467 0.10873038 0.01553515 2.3077844e-39
0.45815611 0.10861856 0.015639439 2.1273378e-39
0.46023068 0.11173496 0.013303185 2.0326283e-39
0.46245971 0.11162282 0.013407836 1.9433039e-39
0.48005649 0.12039921 0.006932924 1.7578406e-39
0.48230836 0.12028587 0.0070386766 2.0301143e-39
0.48456016 0.12017257 0.0071443659 2.3974395e-39
0.48681203 0.12005927 0.0072500552 2.855524e-39
0.48906383 0.11994594 0.0073558087 3.3111169e-39
0.49135605 0.11661006 0.0098971426 4.422114e-39
0.49360025 0.11649716 0.010002466 5.4208152e-39
0.49584445 0.11638421 0.010107854 5.3386557e-39
0.49808866 0.11627128 0.010213237 5.2375128e-39
0.50033283 0.11615831 0.010318564 5.9858482e-39
0.50257713 0.11604542 0.010423947 6.8034091e-39
0.5048213 0.11593252 0.01052933 7.3687798e-39
0.50707823 0.11903945 0.0082016345 8.0059068e-39
0.50933015 0.11892614 0.0083073229 8.1081623e-39
0.51158196 0.1188128 0.0084130764 8.1942679e-39
0.51383376 0.11869952 0.0085187666 8.3894268e-39
0.51608562 0.11858622 0.0086245146 8.6660361e-39
0.51833743 0.11847288 0.0087302085 9.1291862e-39
0.52058923 0.11835957 0.0088359583 9.6841537e-39
0.5228411 0.11824629 0.0089417063 1.0239839e-38
0.52516651 0.12134994 0.0066172355 1.0793021e-38
0.52742589 0.12123622 0.006723355 1.1439473e-38
0.52968532 0.12112254 0.0068294103 1.2080537e-38
0.53204125 0.12422475 0.0045062765 1.2451833e-38
0.53430814 0.12411069 0.0046127583 1.2821341e-38
0.53668678 0.12721153 0.0022907355 1.2914985e-38
0.53896135 0.12709707 0.0023975233 1.3011119e-38
0.54123604 0.12698263 0.002504311 1.3285901e-38
0.54351062 0.12686819 0.0026110993 1.3563557e-38
0.54578537 0.12675373 0.0027179462 1.4300032e-38
0.54805988 0.12663932 0.0028246748 1.5129791e-38
0.55033451 0.12652472 0.0029315283 1.4852503e-38
0.55260915 0.12641031 0.0030383165 1.4667398e-38
0.55488372 0.12629585 0.0031451038 1.494183e-38
0.55715835 0.12618141 0.0032518911 1.5218062e-38
0.55943292 0.12606697 0.0033586794 1.5309547e-38
0.56170756 0.12595251 0.0034654667 1.5399916e-38
0.56398219 0.12583807 0.0035722544 1.4850305e-38
0.5665198 0.12973613 0.00064933859 1.4393311e-38
0.56853139 0.12560908 0.003785837 1.4759965e-38
0.57080597 0.12549463 0.0038926834 1.5217687e-38
0.57308078 0.12538019 0.0039994721 1.5217666e-38
0.57565624 0.12927634 0.0010783221 1.512583e-38
0.57794046 0.1291614 0.0011855541 1.5402411e-38
0.58022463 0.12904647 0.0012927856 1.5679002e-38
0.58250868 0.12893154 0.0014000162 1.5403503e-38
0.58479279 0.12881659 0.0015072473 1.5218397e-38
0.58707696 0.12870163 0.0016145385 1.5402425e-38
0.58936113 0.12858671 0.0017217691 1.5586098e-38
0.59164524 0.12847176 0.0018290007 1.5310951e-38
0.59392923 0.12835684 0.0019362317 1.5126924e-38
0.5962134 0.1282419 0.0020434628 1.5127645e-38
0.59849745 0.12812693 0.002150753 1.5220195e-38
0.60078168 0.12801202 0.0022579851 1.5219473e-38
0.60306573 0.12789705 0.0023652152 1.5309868e-38
0.60534996 0.12778226 0.0024724402 1.5311297e-38
0.60763407 0.12766719 0.0025796783 1.5218754e-38
0.60991812 0.12755238 0.0026869029 1.5313109e-38
0.61220229 0.12743732 0.0027941405 1.5498215e-38
0.61448646 0.12732249 0.0029014247 1.5405304e-38
0.61677057 0.12720743 0.0030086623 1.5312035e-38
0.61905468 0.1270926 0.0031158868 1.5588259e-38
0.62133878 0.12697768 0.0032231179 1.5863755e-38
0.62362295 0.12686273 0.0033303495 1.5956297e-38
0.625907 0.1267478 0.0034376401 1.5956329e-38
0.62819105 0.12663285 0.0035448712 1.5957436e-38
0.63047522 0.12651792 0.0036521023 1.6049256e-38
0.63319021 0.12960199 0.0013458277 1.6049239e-38
0.63548189 0.12948672 0.0014534215 1.6140711e-38
0.63777351 0.12937133 0.0015610214 1.6232899e-38
0.64006537 0.12925607 0.0016686153 1.6416216e-38
0.64235705 0.1291407 0.0017762156 1.6416577e-38
0.64464879 0.12902543 0.0018838099 1.6508773e-38
0.64694047 0.12891006 0.0019914103 1.6693521e-38
0.64923227 0.12879479 0.0020990041 1.6786432e-38
0.65152395 0.12867953 0.0022065979 1.6878983e-38
0.65381563 0.12856413 0.0023141983 1.6971179e-38
0.65610731 0.12844886 0.0024217921 1.7063016e-38
0.65839911 0.12833349 0.0025293925 1.7155214e-38
0.66069084 0.12821822 0.0026369863 1.7246695e-38
0.66298246 0.12810284 0.0027445867 1.7338173e-38
0.66527426 0.12798758 0.0028522401 1.7245979e-38
0.66756606 0.12787218 0.0029598409 1.7245981e-38
0.66985768 0.12775692 0.0030674343 1.7245982e-38
0.67214948 0.12764154 0.0031750347 1.7246341e-38
0.67444116 0.12752628 0.0032826285 1.7246341e-38
0.6773082 0.13060266 0.0009835544 1.7337823e-38
0.67960745 0.13048697 0.0010915175 1.7338186e-38
0.68190676 0.13037126 0.0011994215 1.743002e-38
0.68420625 0.13025554 0.0013073846 1.7338542e-38
0.68650544 0.13013983 0.0014153477 1.7247425e-38
0.68880481 0.13002412 0.0015233108 1.7247068e-38
0.69110411 0.12990838 0.0016312739 1.7154871e-38
0.69340354 0.12979271 0.0017392375 1.7155227e-38
0.69570273 0.129677 0.0018472001 1.7155583e-38
0.6980021 0.12956128 0.0019551036 1.7155579e-38
0.70030141 0.12944557 0.0020630667 1.7247414e-38
0.70260072 0.12932998 0.0021710237 1.7339607e-38
0.70490003 0.12921427 0.0022789864 1.7431804e-38
0.70719939 0.12909855 0.0023869495 1.7430729e-38
0.70949864 0.12898284 0.0024949121 1.7430373e-38
0.71179795 0.12886713 0.0026028757 1.7430375e-38
0.71409732 0.12875141 0.0027107787 1.752257e-38
0.71639669 0.12863572 0.0028187428 1.752293e-38
0.718696 0.12852001 0.0029267059 1.7523291e-38
0.72099531 0.12840432 0.0030346694 1.7615127e-38
0.72329462 0.1282886 0.0031426321 1.7614769e-38
0.72559398 0.12817289 0.0032505956 1.7615127e-38
0.72863579 0.13124049 0.00095975678 1.7706962e-38
0.73094261 0.13112447 0.0010680226 1.7799512e-38
0.73324955 0.13100831 0.0011763549 1.7892789e-38
0.7355566 0.13089229 0.0012846808 1.7800959e-38
0.73786342 0.13077612 0.001392954 1.7800194e-38
0.7401703 0.13066007 0.0015012794 1.5769004e-38
0.74247736 0.1305439 0.0016096123 1.3833658e-38
0.74478424 0.13042787 0.0017179376 1.4109537e-38
0.74628782 0.12713151 0.004222204 1.4382542e-38
0.74858713 0.12701578 0.0043301671 1.4571604e-38
0.7508865 0.1269002 0.0044380636 1.466487e-38
0.75235975 0.12360535 0.006940925 1.4574107e-38
0.75465149 0.12348995 0.0070485254 1.448263e-38
0.75610185 0.12019623 0.0095503516 1.4574105e-38
0.75838602 0.12008128 0.0096575823 1.4666295e-38
0.76067007 0.11996633 0.0097648744 1.4758485e-38
0.76295418 0.11985139 0.009872105 1.4851758e-38
0.76523834 0.11973644 0.0099793356 1.494216e-38
0.76752251 0.11962151 0.010086568 1.5031493e-38
0.76980662 0.11950658 0.010193799 1.5124055e-38
0.77209061 0.11939164 0.010301029 1.5215886e-38
0.77437484 0.11927671 0.010408321 1.5218033e-38
0.77665901 0.11916175 0.010515552 1.5310228e-38
0.77894306 0.11904681 0.010622783 1.5401706e-38
0.78122711 0.11893192 0.01073001 1.549462e-38
0.78351134 0.11881699 0.010837242 1.5125127e-38
0.78579551 0.11870206 0.010944532 1.4758855e-38
0.78807956 0.11858711 0.011051763 1.4204248e-38
0.79036373 0.11847219 0.011158993 1.3656451e-38
0.79264784 0.11835723 0.011266226 1.300785e-38
0.79493195 0.11824229 0.011373457 1.2458636e-38
0.79721606 0.11812735 0.011480687 1.2273177e-38
0.80048585 0.1211836 0.0092005208 1.2094152e-38
0.80377102 0.12423901 0.0069210301 1.23639e-38
0.80607027 0.12412328 0.0070289937 1.2644048e-38
0.80836958 0.12400758 0.0071369563 1.2820879e-38
0.81066895 0.12389187 0.0072449199 1.2907677e-38
0.81296819 0.12377617 0.0073528825 1.253458e-38
0.81629884 0.12682927 0.0050755874 1.2152513e-38
0.81756687 0.12354475 0.0075688078 1.1700852e-38
0.81986624 0.12342905 0.0076767127 1.1231634e-38
0.82216549 0.12331333 0.0077846753 1.1610817e-38
0.82446486 0.12319763 0.0078926403 1.1966331e-38
0.82783347 0.12624873 0.005617117 1.2714655e-38
0.83014047 0.12613268 0.0057254438 1.353291e-38
0.83244729 0.12601668 0.0058337688 1.3084837e-38
0.83475429 0.12590049 0.0059420425 1.2708524e-38
0.83706117 0.12578447 0.0060503683 1.2810402e-38
0.84075224 0.12962455 0.0031816112 1.2891488e-38
0.84167504 0.1255523 0.0062670265 1.3361081e-38
0.84398192 0.12543613 0.0063752984 1.3812738e-38
0.84628898 0.12532012 0.0064836252 1.3547646e-38
0.84859574 0.12520407 0.006591951 1.3355018e-38
0.85233444 0.12904167 0.0037254114 1.4100475e-38
0.85465086 0.12892513 0.0038341209 1.4826905e-38
0.85696727 0.12880862 0.0039428906 1.5393339e-38
0.86045188 0.13185382 0.0016728174 1.6038028e-38
0.86277592 0.13173696 0.0017819493 1.6044531e-38
0.86509991 0.13161999 0.0018910873 1.6131702e-38
0.86742389 0.13150303 0.0020001661 1.5951974e-38
0.869748 0.13138606 0.002109305 1.5764346e-38
0.87207198 0.1312692 0.0022184369 1.5950156e-38
0.8731823 0.12799264 0.0047042281 1.6039133e-38
0.87549865 0.127876 0.0048129442 1.613636e-38
0.87781507 0.12775947 0.0049217134 1.6227119e-38
0.88136816 0.13080141 0.0026548658 1.6412942e-38
0.88369209 0.13068445 0.0027640043 1.6685244e-38
0.88601619 0.13056746 0.0028730831 1.6688854e-38
0.88834018 0.1304505 0.0029822211 1.6782494e-38
0.89066422 0.13033365 0.003091353 1.6510586e-38
0.89298826 0.13021667 0.0032004328 1.6326907e-38
0.89659446 0.13325596 0.00093602296 1.6601327e-38
0.89763623 0.12998269 0.0034186495 1.687827e-38
0.90125769 0.13302125 0.0011549722 1.7062301e-38
0.90358925 0.13290395 0.0012644143 1.734068e-38
0.90592092 0.13278665 0.0013739155 1.7247413e-38
0.90825248 0.13266934 0.0014833566 1.7065535e-38
0.91224384 0.13649425 -0.0013713317 1.7433235e-38
0.91458505 0.13637646 -0.0012613877 1.7803455e-38
0.91692621 0.13625866 -0.0011515024 1.8076817e-38
0.91926724 0.13614088 -0.0010415576 1.8259414e-38
0.92160839 0.13602306 -0.00093167229 1.8352325e-38
0.9239496 0.13590527 -0.00082172779 1.8446324e-38
0.92629063 0.1357875 -0.00071178353 1.8536377e-38
0.92863178 0.13566957 -0.00060189166 1.8627849e-38
0.93097293 0.1355518 -0.00049194694 1.8260501e-38
0.93331409 0.13543399 -0.00038206158 1.7894234e-38
0.93565512 0.13531619 -0.00027211756 1.8076827e-38
0.93799627 0.1351984 -0.00016223243 1.8260854e-38
0.94033742 0.13508061 -5.2287476e-05 1.8445597e-38
0.94267851 0.13496281 5.7597645e-05 1.862963e-38
0.94501972 0.13484499 0.00016754237 1.8721109e-38
0.94736081 0.13472722 0.00027742749 1.8814367e-38
0.94970202 0.1346094 0.00038737222 1.8903677e-38
0.95204306 0.1344915 0.00049726339 1.8901896e-38
0.95438415 0.13437369 0.00060720835 1.8903701e-38
0.95672524 0.1342559 0.00071715238 1.8996612e-38
0.95906651 0.13413811 0.00082703773 1.8995893e-38
0.96140754 0.1340203 0.00093698269 1.9087375e-38
0.96374881 0.13390251 0.001046868 1.8995186e-38
0.96608996 0.13378471 0.0011568121 1.8903712e-38
0.96994126 0.13681142 -0.0010960361 1.8812955e-38
0.97228992 0.13669333 -0.00098578818 1.8631081e-38
0.9746387 0.13657509 -0.00087547442 1.8996634e-38
0.97698742 0.13645695 -0.00076522632 1.9361812e-38
0.97779554 0.13319562 0.0017063636 1.9363236e-38
0.9816848 0.13622046 -0.00054465909 1.9455427e-38
0.98403358 0.13610233 -0.00043441099 1.9363948e-38
0.98638231 0.13598411 -0.00032409676 1.9272475e-38
0.98873103 0.135866 -0.00021384889 1.9180284e-38
0.99107981 0.13574775 -0.00010359474 1.8995894e-38
0.99501473 0.13877042 -0.0023524873 1.9088086e-38
0.99577719 0.13551137 0.00011696666 1.9179922e-38
0.99812591 0.13539314 0.00022728066 1.9179924e-38
1.0020837 0.13841471 -0.0020205763 1.9179566e-38
1.0028235 0.13515677 0.00044778315 1.908845e-38
1.0051723 0.13503866 0.00055808993 1.9088809e-38
1.0075209 0.13492042 0.00066834455 1.8996614e-38
1.0115091 0.13794044 -0.0015780483 1.8904423e-38
1.0138654 0.13782188 -0.0014674324 1.899662e-38
1.0162216 0.13770331 -0.0013568152 1.9088455e-38
1.0185779 0.13758476 -0.0012461382 1.9088454e-38
1.0209343 0.13746618 -0.0011355209 1.9179929e-38
1.0232908 0.13734749 -0.0010248974 1.8996616e-38
1.025647 0.13722894 -0.00091427984 1.8904424e-38
1.0280033 0.13711037 -0.0008036634 1.899662e-38
1.0303595 0.13699183 -0.00069298781 1.9088816e-38
1.0327159 0.13687323 -0.00058236951 1.9089174e-38
1.0350723 0.13675468 -0.00047175307 1.9181367e-38
1.0374285 0.13663612 -0.00036113593 1.9272843e-38
1.0419482 0.14043456 -0.0031910287 1.9457232e-38
1.0421413 0.13639899 -0.00013984158 1.9364321e-38
1.04668 0.14019643 -0.0029688491 1.9363242e-38
1.0490459 0.14007737 -0.0028577871 1.9271402e-38
1.0514115 0.13995829 -0.0027467273 1.9272837e-38
1.0555462 0.14297101 -0.0049863332 1.9272478e-38
1.0579195 0.14285162 -0.0048749102 1.927248e-38
1.0585091 0.13960111 -0.0024134866 1.9272122e-38
1.0626664 0.14261273 -0.0046519977 1.9272122e-38
1.0632409 0.13936298 -0.0021913056 1.9271762e-38
1.0656067 0.13924393 -0.0020802449 1.9271409e-38
1.0679725 0.13912499 -0.0019691908 1.9272131e-38
1.0703381 0.13900591 -0.0018580719 1.9363965e-38
1.0727042 0.13888688 -0.0017470103 1.927141e-38
1.0750699 0.13876782 -0.0016359501 1.927105e-38
1.0774359 0.13864873 -0.0015248307 1.9179572e-38
1.0798016 0.13852967 -0.0014137705 1.9179572e-38
1.0821676 0.13841063 -0.0013027089 1.9271406e-38
1.0845331 0.13829155 -0.0011915893 1.9271403e-38
1.086899 0.13817249 -0.0010805295 1.9271401e-38
1.0892649 0.13805345 -0.00096946838 1.9272478e-38
1.0935209 0.14106013 -0.0032033459 1.9180285e-38
1.0958946 0.14094073 -0.003091922 1.9180645e-38
1.0982679 0.14082123 -0.0029804921 1.9272124e-38
1.1006415 0.14070185 -0.0028690682 1.9363244e-38
1.1030146 0.14058232 -0.0027576406 1.9455799e-38
1.1053883 0.14046295 -0.0026462162 1.9641268e-38
1.1077616 0.14034355 -0.0025347341 1.9639477e-38
1.1101352 0.14022407 -0.0024233032 1.9638035e-38
1.1125085 0.14010468 -0.0023118807 1.9455792e-38
1.114882 0.13998517 -0.0022004512 1.927355e-38
1.1152892 0.1367439 0.00025236979 1.7889912e-38
1.1176549 0.13662492 0.00036348263 1.6507674e-38
1.1200207 0.1365059 0.00047454238 1.5856532e-38
1.1223866 0.13638681 0.00058560353 1.5294019e-38
1.1222565 0.13236749 0.0036216271 1.4745855e-38
1.1246129 0.13224892 0.003732244 1.4278763e-38
1.1249576 0.12901092 0.0061821151 1.263144e-38
1.1293256 0.13201182 0.0039535379 1.1073852e-38
1.131682 0.13189325 0.0040641553 1.1161768e-38
1.1340383 0.13177468 0.0041747722 1.1163918e-38
1.1363945 0.13165611 0.0042853891 1.0887332e-38
1.1387508 0.13153754 0.0043960656 1.0610727e-38
1.1436791 0.13531536 0.0015853187 1.1154183e-38
